2391
0.267185 0.508445 0
0.271686 0.543166 0
0.242512 0.559862 0
0.283079 0.576986 0
0.255189 0.592009 0
0.280358 0.617992 0
0.239052 0.620111 0
0.254724 0.651251 0
0.288484 0.654335 0
0.267367 0.687065 0
0.240045 0.721072 0
0.260857 0.750284 0
0.250217 0.863225 0
0.257548 0.825099 0
0.278707 0.719681 0
0.29404 0.755043 0
0.268771 0.787732 0
0.294192 0.818433 0
0.283859 0.851161 0
0.302905 0.528291 0
0.313086 0.560805 0
0.314421 0.595759 0
0.351294 0.610835 0
0.38524 0.624813 0
0.400948 0.555683 0
0.462907 0.560047 0
0.425956 0.575833 0
0.482536 0.593973 0
0.417871 0.60993 0
0.304169 0.689916 0
0.309078 0.787135 0
0.317817 0.628596 0
0.31447 0.721955 0
0.329505 0.75515 0
0.346941 0.787369 0
0.318155 0.854521 0
0.370103 0.815245 0
0.471342 0.833192 0
0.395001 0.842165 0
0.332159 0.503223 0
0.339183 0.53762 0
0.368336 0.513223 0
0.403686 0.519469 0
0.347613 0.575673 0
0.353659 0.648246 0
0.371393 0.549066 0
0.3848 0.587942 0
0.386176 0.659311 0
0.32201 0.661238 0
0.343966 0.686618 0
0.347652 0.721116 0
0.33091 0.819765 0
0.355716 0.847705 0
0.37865 0.691789 0
0.380096 0.725121 0
0.401966 0.751033 0
0.36441 0.755418 0
0.385709 0.783203 0
0.431297 0.540197 0
0.421566 0.643825 0
0.415793 0.679664 0
0.411403 0.714122 0
0.444954 0.704596 0
0.454765 0.520716 0
0.450723 0.597523 0
0.458231 0.631257 0
0.450737 0.668142 0
0.478832 0.696409 0
0.43586 0.741416 0
0.470063 0.732819 0
0.423899 0.777816 0
0.459239 0.769287 0
0.483274 0.797915 0
0.409223 0.810343 0
0.447488 0.804743 0
0.420636 0.869751 0
0.433713 0.837627 0
0.458554 0.866356 0
0 0.534089 0.0337806
0 0.573661 0.0340507
0 0.554232 0.0642512
0 0.517611 0.0673224
0 0.592906 0.00040033
0 0.613355 0.0331657
0 0.650658 0.0357988
0 0.593562 0.0635721
0 0.63022 0.0661306
0 0.685857 0.0363207
0 0.665851 0.0700763
0 0.720611 0.036111
0 0.754609 0.0372047
0 0.700967 0.0702428
0 0.804174 0.000413816
0 0.787686 0.0377116
0 0.854518 0.0336758
0 0.821056 0.0377358
0 0.843156 0.067096
0 0.504473 0.101947
0 0.527772 0.131639
0 0.574648 0.092723
0 0.539321 0.0973869
0 0.561287 0.126677
0 0.611843 0.0954855
0 0.593474 0.121358
0 0.644994 0.101169
0 0.659662 0.133366
0 0.623812 0.134295
0 0.735878 0.0711789
0 0.805862 0.0717575
0 0.770957 0.0732455
0 0.863624 0.094065
0 0.826643 0.100157
0 0.680759 0.102575
0 0.71572 0.103823
0 0.751527 0.10507
0 0.789073 0.10702
0 0.850842 0.128556
0 0.590199 0.153448
0 0.693387 0.136543
0 0.518905 0.165577
0 0.641641 0.163753
0 0.614096 0.177688
0 0.707096 0.170262
0 0.543738 0.193602
0 0.646032 0.200609
0 0.68516 0.20197
0 0.727138 0.137514
0 0.721967 0.203445
0 0.759974 0.13841
0 0.741303 0.171655
0 0.758332 0.205493
0 0.774689 0.174288
0 0.794871 0.205444
0 0.819101 0.134449
0 0.84126 0.165016
0 0.831207 0.201731
0 0.499025 0.233708
0 0.503101 0.293078
0 0.533866 0.227751
0 0.556875 0.2551
0 0.542707 0.290067
0 0.569188 0.220183
0 0.578751 0.281878
0 0.606977 0.211454
0 0.59245 0.245326
0 0.61436 0.269546
0 0.667265 0.23225
0 0.704104 0.234714
0 0.740904 0.235768
0 0.668136 0.298023
0 0.686433 0.266032
0 0.81693 0.234918
0 0.778779 0.23707
0 0.832103 0.265967
0 0.75864 0.267025
0 0.776116 0.296822
0 0.508951 0.199864
0 0.521232 0.261984
0 0.651466 0.264418
0 0.640806 0.327473
0 0.554288 0.160141
0 0.523844 0.320013
0 0.579368 0.187147
0 0.63489 0.29531
0 0.5653 0.318357
0 0.630633 0.235765
0 0.672952 0.169365
0 0.602009 0.337661
0 0.60268 0.306028
0 0.681144 0.329619
0 0.501895 0.349504
0 0.539901 0.349053
0 0.573726 0.353088
0 0.625402 0.359298
0 0.661169 0.35849
0 0.521075 0.379832
0 0.596125 0.380728
0 0.556786 0.382705
0 0.636225 0.389035
0 0.673677 0.39067
0 0.503238 0.410933
0 0.573367 0.412448
0 0.536421 0.413432
0 0.610351 0.41406
0 0.649333 0.419777
0 0.586715 0.443713
0 0.548084 0.443771
0 0.507887 0.444265
0 0.528997 0.475139
0 0.565475 0.47369
0 0.624528 0.446537
0 0.661769 0.451858
0 0.602496 0.475204
0 0.637828 0.480303
0 0.673525 0.485043
0 0.790016 0.142923
0 0.722283 0.267171
0 0.797027 0.268164
0 0.703717 0.299318
0 0.809233 0.172439
0 0.865207 0.193425
0 0.855707 0.230077
0 0.865884 0.262286
0 0.854238 0.2946
0 0.739491 0.299356
0 0.816507 0.301671
0 0.754465 0.331261
0 0.788886 0.325826
0 0.845562 0.327773
0 0.719224 0.33246
0 0.814427 0.343494
0 0.699234 0.361703
0 0.776678 0.359601
0 0.842209 0.365345
0 0.738981 0.366118
0 0.80822 0.379014
0 0.710476 0.394149
0 0.869997 0.386721
0 0.744274 0.401538
0 0.698357 0.455893
0 0.736392 0.459604
0 0.70946 0.488125
0 0.80407 0.483233
0 0.835884 0.476146
0 0.724058 0.428738
0 0.765744 0.431829
0 0.802872 0.416344
0 0.865796 0.423041
0 0.836231 0.440669
0 0.686817 0.423168
0 0.770714 0.468145
0 0.775227 0.393913
0 0.836056 0.402706
0 0.801725 0.449603
0.0351963 0.884635 0
0.000453283 0.903129 0
0.000433304 0.935546 0
0.000395863 0.968315 0
0.0772053 0.898051 0
0.0397252 0.918891 0
0.0738243 0.934713 0
0.0366462 0.956546 0
0.0706228 0.969152 0
0.11568 0.885895 0
0.106381 0.961844 0
0.151988 0.87132 0
0.143733 0.908991 0
0.136849 0.949217 0
0.170747 0.932238 0
0.165461 0.968059 0
0.178713 0.892733 0
0.200647 0.91734 0
0.202124 0.95861 0
0 0.888103 0.030378
0 0.920901 0.0324101
0 0.900188 0.087705
0 0.925242 0.0629408
0 0.938805 0.0941717
0 0.883326 0.121691
0 0.914866 0.115905
0 0.873732 0.156966
0 0.899447 0.182441
0 0.940617 0.133382
0 0.958432 0.036774
0.108471 0.922205 0
0 0.88188 0.0613648
0 0.906888 0.148521
0 0.934601 0.168516
0 0.96553 0.0720456
0.132888 0.999178 0
0 0.968304 0.112252
0 0.968385 0.15122
0 0.96509 0.186732
0.000735141 1 0.000706487
0.0372848 0.999381 0
0 0.999583 0.0353676
0 0.999654 0.0691035
0.0429293 1 0.0274155
0.0712742 1 0.000581096
0.03162 1 0.0554714
0.0676011 1 0.0537888
0.0970864 1 0.0366734
0.102698 0.999606 0
0.134472 1 0.0284697
0.192594 0.999515 0
0.162697 1 0.000531063
0.199127 1 0.0320358
0.0978775 1 0.07607
0.128757 1 0.0603595
0.157648 1 0.0773204
0.168162 1 0.0435195
0.18958 1 0.0799878
0.000393123 1 0.100424
0.0357232 1 0.117886
0.038009 1 0.0852027
0.069235 1 0.0952773
0.0691822 1 0.132673
0.000365325 1 0.16927
0.000379571 1 0.134442
0.0350777 1 0.185429
0.0354028 1 0.151649
0.069295 1 0.167824
0.0999999 1 0.114852
0.101409 1 0.185884
0.12906 1 0.0971323
0.102407 1 0.150932
0.133369 1 0.132801
0.163157 1 0.111347
0.136042 1 0.168752
0.196134 1 0.11775
0.167241 1 0.146829
0.182765 1 0.177246
0.217374 0.883034 0
0.281886 0.88533 0
0.251015 0.899133 0
0.313519 0.891213 0
0.293182 0.922303 0
0.330639 0.92317 0
0.228799 0.926334 0
0.262025 0.932261 0
0.309395 0.958676 0
0.238279 0.963706 0
0.223816 0.999563 0
0.257776 0.999579 0
0.237392 1 0.0332594
0.271602 1 0.0311569
0.275698 0.964489 0
0.342225 0.965344 0
0.293334 0.999549 0
0.327922 0.999589 0
0.309785 1 0.0306784
0.382166 0.873834 0
0.345219 0.882568 0
0.369369 0.906187 0
0.361213 0.937084 0
0.395624 0.934188 0
0.483098 0.895491 0
0.445192 0.898891 0
0.407305 0.90149 0
0.467364 0.929354 0
0.431015 0.931643 0
0.379431 0.967541 0
0.397681 1 0.00036065
0.450964 0.963747 0
0.415489 0.965966 0
0.434715 0.999639 0
0.345997 1 0.0343718
0.363088 1 0.000394304
0.415854 1 0.0302444
0.449963 1 0.0383081
0.468717 1 0.000377886
0.216295 1 0.0602556
0.224487 1 0.0930903
0.253373 1 0.0677931
0.259152 1 0.103969
0.204389 1 0.152598
0.214887 1 0.192172
0.230966 1 0.126798
0.237642 1 0.159934
0.247192 1 0.190171
0.266326 1 0.138426
0.274413 1 0.171941
0.287698 1 0.0575319
0.289382 1 0.0875396
0.295509 1 0.119644
0.302296 1 0.153116
0.306361 1 0.189154
0.321733 1 0.0635398
0.32462 1 0.0966204
0.330362 1 0.131351
0.355458 1 0.0702484
0.334545 1 0.167834
0.357585 1 0.107264
0.362797 1 0.145294
0.365524 1 0.182931
0.380939 1 0.039715
0.385944 1 0.0828764
0.38893 1 0.120637
0.395455 1 0.158116
0.427675 1 0.177346
0.441515 1 0.0754708
0.454419 1 0.110693
0.420878 1 0.134938
0.448493 1 0.147407
0.480628 1 0.14031
0.412022 1 0.06244
0.47212 1 0.0729628
0.395716 1 0.192723
0.418222 1 0.100332
0.465627 1 0.176333
0 0.892606 0.217076
0 0.896142 0.249566
0 0.893848 0.285099
0 0.882906 0.316211
0 0.92899 0.202619
0 0.92879 0.235925
0 0.928203 0.270987
0 0.925603 0.306239
0 0.911294 0.335779
0 0.962149 0.291501
0 0.95987 0.327825
0 0.963532 0.220797
0 0.9632 0.255684
0 0.999359 0.335454
0 0.999566 0.270888
0 0.999514 0.304228
0 0.999632 0.203157
0 0.999597 0.236929
0.0280778 1 0.327959
0.0339445 1 0.219552
0.0314887 1 0.290042
0.0676751 1 0.20261
0.0629112 1 0.273721
0.0909207 1 0.295109
0.122619 1 0.280198
0.151023 1 0.302483
0.158167 1 0.19482
0.157636 1 0.230161
0.154177 1 0.266551
0.0326119 1 0.254408
0.065041 1 0.238181
0.0969145 1 0.222542
0.128176 1 0.207293
0.126118 1 0.243708
0.0594856 1 0.310113
0.0860695 1 0.332089
0.0946184 1 0.258689
0.118421 1 0.316148
0.14702 1 0.337654
0 0.875298 0.350047
0 0.937118 0.35541
0 0.904273 0.371001
0 0.936646 0.391145
0 0.90072 0.404989
0 0.929698 0.426575
0 0.870456 0.463888
0 0.894577 0.438755
0 0.916105 0.461755
0 0.966069 0.413385
0 0.956379 0.451298
0 0.968059 0.369773
0 0.999294 0.449823
0 0.968275 0.483946
0.000370654 1 0.391384
0.000335239 1 0.478516
0.000588555 1 0.361382
0.00038379 1 0.423223
0.0296154 1 0.453502
0.0395635 1 0.375041
0.0333577 1 0.408133
0.0526946 1 0.345962
0.053113 1 0.433256
0.0647074 1 0.469086
0.079922 1 0.368035
0.0725408 1 0.401816
0.106497 1 0.415025
0.0849899 1 0.439187
0.102254 1 0.469576
0.110873 1 0.38542
0.114392 1 0.351623
0.123264 1 0.443102
0.136232 1 0.478222
0.143134 1 0.410723
0.143559 1 0.373747
0.176325 1 0.357427
0.15595 1 0.446124
0.171601 1 0.479762
0.174128 1 0.39143
0.185371 1 0.252352
0.188932 1 0.214394
0.214757 1 0.236727
0.242163 1 0.222114
0.183135 1 0.288638
0.21336 1 0.311003
0.214395 1 0.274762
0.244161 1 0.259405
0.244453 1 0.297137
0.180769 1 0.323774
0.243399 1 0.33516
0.205963 1 0.378027
0.211334 1 0.345933
0.241157 1 0.373903
0.181767 1 0.421717
0.21398 1 0.408472
0.190385 1 0.451945
0.210065 1 0.478176
0.222363 1 0.442094
0.275878 1 0.20807
0.306892 1 0.22448
0.27384 1 0.242315
0.30468 1 0.2598
0.333428 1 0.277535
0.274564 1 0.279312
0.304677 1 0.298167
0.273408 1 0.354874
0.274264 1 0.317211
0.305044 1 0.335506
0.247947 1 0.410373
0.244909 1 0.475247
0.276939 1 0.390782
0.25609 1 0.444566
0.28214 1 0.470196
0.307231 1 0.370953
0.282919 1 0.427769
0.31117 1 0.408324
0.312757 1 0.446919
0.315349 1 0.480613
0.338209 1 0.240688
0.335701 1 0.316776
0.339165 1 0.205504
0.361057 1 0.296413
0.413592 1 0.217667
0.423478 1 0.28028
0.440834 1 0.341783
0.448187 1 0.208453
0.477964 1 0.298037
0.446624 1 0.308743
0.33958 1 0.350687
0.465944 1 0.366209
0.338872 1 0.387696
0.426201 1 0.415044
0.432676 1 0.377777
0.39514 1 0.422815
0.451408 1 0.441552
0.37292 1 0.446104
0.413952 1 0.451837
0.477537 1 0.46875
0.373324 1 0.222616
0.470688 1 0.238011
0.366293 1 0.260178
0.399488 1 0.251006
0.435163 1 0.244389
0.391092 1 0.288523
0.456889 1 0.271645
0.374105 1 0.329045
0.410901 1 0.317069
0.480823 1 0.332005
0.367362 1 0.404858
0.370548 1 0.366599
0.399498 1 0.387606
0.404661 1 0.351819
0.457533 1 0.40552
0.341861 1 0.429672
0.347337 1 0.471675
0.382759 1 0.479044
0.41483 1 0.485679
0.445851 1 0.476735
0 0.514986 0.509172
0 0.539986 0.539581
0 0.501356 0.542062
0 0.522516 0.570889
0 0.582558 0.504489
0 0.549974 0.507159
0 0.614168 0.510171
0 0.579302 0.538457
0 0.559722 0.570593
0 0.648023 0.514577
0 0.617666 0.543611
0 0.682894 0.518428
0 0.717666 0.52183
0 0.690391 0.552055
0 0.744647 0.494214
0 0.752804 0.527907
0 0.780132 0.504454
0 0.78884 0.536576
0 0.756993 0.560639
0 0.504783 0.601676
0 0.523627 0.635307
0 0.540831 0.602696
0 0.576076 0.604662
0 0.556359 0.63692
0 0.595824 0.572987
0 0.611355 0.607715
0 0.654639 0.548134
0 0.632565 0.577594
0 0.647204 0.611453
0 0.724759 0.555758
0 0.78612 0.571744
0 0.669622 0.581819
0 0.7071 0.585861
0 0.744468 0.592042
0 0.683446 0.614815
0 0.779996 0.604209
0 0.718989 0.619953
0 0.752575 0.627991
0 0.783291 0.638601
0 0.530406 0.668897
0 0.590403 0.639188
0 0.544501 0.702347
0 0.580104 0.704481
0 0.557743 0.735917
0 0.592654 0.738129
0 0.501125 0.767435
0 0.536722 0.767399
0 0.571189 0.769978
0 0.625232 0.642189
0 0.639158 0.77483
0 0.673053 0.678591
0 0.66119 0.742784
0 0.694849 0.74513
0 0.708805 0.682155
0 0.728383 0.746749
0 0.745859 0.689868
0 0.757085 0.721154
0 0.761149 0.755335
0 0.508826 0.700786
0 0.522299 0.734323
0 0.56652 0.670854
0 0.602119 0.673197
0 0.605391 0.771918
0 0.615476 0.706918
0 0.627282 0.740617
0 0.660552 0.645064
0 0.637618 0.676052
0 0.650731 0.709435
0 0.696123 0.648708
0 0.685704 0.711848
0 0.720606 0.714761
0 0.672517 0.77641
0 0.706451 0.778026
0 0.732137 0.65549
0 0.767555 0.66655
0 0.787842 0.698254
0 0.784909 0.775077
0 0.740067 0.779309
0 0.517585 0.798628
0 0.551884 0.801988
0 0.586229 0.803843
0 0.603148 0.837423
0 0.504156 0.829381
0 0.513502 0.865693
0 0.620558 0.806129
0 0.637436 0.840259
0 0.550008 0.868088
0 0.535467 0.834662
0 0.568886 0.836067
0 0.533003 0.899238
0 0.585782 0.869009
0 0.620913 0.871114
0 0.49788 0.902154
0 0.569265 0.900513
0 0.517349 0.93291
0 0.552815 0.932319
0 0.6049 0.902195
0 0.588465 0.933446
0 0.624621 0.934356
0 0.500256 0.965351
0 0.537079 0.96549
0 0.572872 0.96586
0 0.60854 0.966142
0.000393629 0.628793 1
0.000413607 0.528296 1
0.000416153 0.561168 1
0.000406274 0.594739 1
0.0381571 0.516326 1
0.0736829 0.501677 1
0.0382453 0.549821 1
0.0740856 0.536804 1
0.107455 0.555632 1
0.0381913 0.583214 1
0.0737138 0.573166 1
0.0379455 0.615454 1
0.0732241 0.611996 1
0.105893 0.593303 1
0 0.654822 0.808705
0 0.689652 0.808881
0 0.70782 0.840221
0 0.672589 0.84051
0 0.761998 0.804455
0 0.725257 0.809778
0 0.744394 0.838177
0 0.778889 0.838516
0 0.762828 0.869966
0 0.692412 0.871924
0 0.727844 0.870366
0 0.656931 0.872018
0 0.782308 0.901915
0 0.747555 0.902147
0 0.640671 0.902876
0 0.712465 0.902783
0 0.660528 0.934577
0 0.676704 0.903426
0 0.732335 0.934536
0 0.696629 0.934728
0 0.767511 0.934615
0 0.64435 0.966766
0 0.679886 0.966716
0 0.715412 0.966853
0 0.75097 0.967208
0 0.786929 0.967463
0.000428817 0.663763 1
0.000464635 0.698136 1
0.000458508 0.732992 1
0.0372342 0.646402 1
0.0401423 0.67806 1
0.0401536 0.710401 1
0.000506882 0.76894 1
0.0390497 0.743452 1
0.0749233 0.650383 1
0.07795 0.687157 1
0.0770789 0.724036 1
0.0794626 0.761035 1
0.0476896 0.772938 1
0 0.859672 0.501938
0 0.821573 0.514465
0 0.93474 0.488885
0 0.896237 0.492044
0 0.851941 0.537672
0 0.819154 0.552865
0 0.925185 0.521732
0 0.887865 0.527201
0 0.916599 0.553042
0 0.847638 0.575335
0 0.880767 0.562756
0 0.815038 0.590158
0 0.937446 0.579192
0 0.905919 0.589677
0 0.843247 0.613147
0 0.874336 0.600635
0 0.812054 0.626022
0 0.902943 0.626045
0 0.936159 0.614226
0 0.87047 0.637988
0 0.932777 0.649669
0 0.804141 0.665358
0 0.837383 0.650638
0 0.899333 0.662556
0 0.829598 0.686486
0 0.865212 0.674109
0 0.85877 0.708683
0 0.894291 0.698745
0 0.928445 0.686824
0 0.821222 0.718217
0 0.789186 0.735228
0 0.852163 0.741804
0 0.817825 0.752653
0 0.846554 0.77633
0 0.925101 0.723846
0 0.888113 0.733393
0 0.939963 0.756214
0 0.909864 0.761839
0 0.878399 0.769186
0 0.962095 0.519521
0 0.999529 0.541139
0 0.959438 0.553675
0 0.967769 0.594091
0 0.999628 0.510498
0.0325983 1 0.490079
0 0.999545 0.574356
0.000394417 1 0.60871
0.028902 1 0.557921
0.037759 1 0.527096
0.0608266 1 0.561568
0.0618966 1 0.504026
0.0927018 1 0.499779
0.0788669 1 0.533302
0.0343192 1 0.590431
0.0386756 1 0.624015
0.0692147 1 0.598418
0.0932302 1 0.571999
0.105614 1 0.607287
0 0.967119 0.633843
0 0.99955 0.667312
0 0.963479 0.671618
0.000585177 1 0.639752
0.0299298 1 0.674901
0 0.960754 0.707023
0 0.99956 0.698677
0 0.967045 0.740032
0.000376043 1 0.730017
0.000396606 1 0.763239
0.0352302 1 0.710988
0.0363749 1 0.745641
0.0521192 1 0.65319
0.0643468 1 0.688774
0.0688758 1 0.725248
0.0810503 1 0.631886
0.0717352 1 0.760024
0.0898357 1 0.665179
0.0974566 1 0.704486
0.104072 1 0.739849
0 0.815908 0.784764
0 0.867646 0.804455
0 0.796392 0.810311
0 0.833974 0.811824
0 0.853955 0.839559
0 0.889126 0.831546
0 0.815772 0.840574
0 0.835184 0.870097
0 0.872527 0.869087
0 0.798183 0.870213
0 0.817213 0.901587
0 0.802491 0.934218
0.00033955 0.807166 1
0 0.823012 0.96629
0 0.851733 0.90121
0 0.883894 0.902397
0 0.837933 0.933742
0 0.872983 0.934647
0 0.858812 0.967067
0 0.934826 0.792283
0 0.902309 0.798803
0 0.928626 0.829132
0 0.90528 0.858609
0 0.937859 0.866481
0 0.967953 0.77794
0.000383356 1 0.797729
0 0.964375 0.813589
0 0.965804 0.847445
0.000371538 1 0.831762
0 0.911444 0.891056
0 0.908768 0.930295
0 0.968544 0.884696
0 0.939657 0.904871
0 0.969967 0.922998
0 0.89504 0.965334
0 0.930172 0.969424
0 0.94102 0.939195
0 0.967884 0.964703
0.000376371 0.954222 1
0.000452201 0.842322 1
0.000434319 0.878142 1
0.000435896 0.913917 1
0.000691294 0.999019 1
0.0316919 0.796685 1
0.0388793 0.861419 1
0.101775 1 0.846236
0.104981 1 0.912832
0.0746287 0.999546 1
0.0401992 0.827864 1
0.0734317 0.802247 1
0.0386483 0.896127 1
0.0760237 0.840743 1
0.0753708 0.877637 1
0.0370839 0.931789 1
0.0743821 0.915155 1
0.0375739 0.967967 1
0.0717571 0.95406 1
0.102944 0.969184 1
0.0366497 1 0.779696
0.104396 1 0.777366
0.0359472 1 0.814305
0.0710105 1 0.795181
0.104541 1 0.812273
0.0352786 1 0.849964
0.0698024 1 0.829988
0.000387462 1 0.866666
0.0682069 1 0.865851
0.100109 1 0.881282
0.000425997 1 0.902481
0.000448916 1 0.937127
0.0352621 1 0.887393
0.0690773 1 0.902457
0.036606 1 0.926831
0.000673934 1 0.967755
0.0375304 1 0.99957
0.0470745 1 0.96376
0.075731 1 0.937278
0.0921627 1 0.969613
0.139765 0.500476 1
0.173344 0.515674 1
0.235645 0.498613 1
0.270215 0.506709 1
0.108533 0.51995 1
0.143325 0.537959 1
0.207628 0.526588 1
0.244216 0.533576 1
0.17942 0.554203 1
0.218656 0.561454 1
0.2582 0.565511 1
0.138837 0.572779 1
0.167891 0.588313 1
0.200142 0.592146 1
0.235434 0.595898 1
0.272704 0.598881 1
0.138549 0.61126 1
0.17428 0.62385 1
0.210252 0.628036 1
0.107773 0.631884 1
0.248204 0.629878 1
0.144738 0.648538 1
0.182348 0.659506 1
0.223433 0.660843 1
0.113515 0.66896 1
0.262305 0.663923 1
0.152811 0.686712 1
0.199662 0.689952 1
0.239213 0.694517 1
0.107938 0.784665 1
0.108943 0.821375 1
0.110688 0.858939 1
0.108601 0.933374 1
0.108704 0.896228 1
0.277863 0.698016 1
0.112991 0.704567 1
0.179871 0.717147 1
0.142964 0.724147 1
0.110975 0.743149 1
0.343601 0.502691 1
0.319045 0.531796 1
0.283718 0.535611 1
0.357102 0.538195 1
0.477927 0.499852 1
0.382732 0.509359 1
0.42007 0.516423 1
0.456485 0.525599 1
0.394991 0.545155 1
0.432581 0.552931 1
0.471451 0.558904 1
0.296555 0.567738 1
0.332648 0.568214 1
0.370054 0.574099 1
0.407615 0.580928 1
0.445602 0.587783 1
0.309947 0.601717 1
0.347011 0.604197 1
0.482606 0.595971 1
0.384186 0.61016 1
0.421659 0.616571 1
0.286104 0.633203 1
0.458864 0.623965 1
0.324172 0.635783 1
0.361131 0.640415 1
0.398309 0.645791 1
0.300889 0.667163 1
0.435858 0.652458 1
0.473247 0.660193 1
0.315307 0.702626 1
0.352683 0.706568 1
0.375261 0.676101 1
0.449909 0.688131 1
0.464068 0.723329 1
0.337962 0.671244 1
0.389513 0.711774 1
0.412291 0.680975 1
0.426339 0.716231 1
0.435759 0.89354 1
0.167413 0.749946 1
0.174892 0.78586 1
0.143888 0.804258 1
0.183349 0.822599 1
0.218105 0.724808 1
0.273066 0.764794 1
0.211404 0.792443 1
0.249774 0.795946 1
0.224983 0.826346 1
0.28846 0.799466 1
0.327205 0.804182 1
0.404482 0.747049 1
0.366431 0.810353 1
0.404289 0.815943 1
0.441304 0.751271 1
0.427179 0.852721 1
0.478658 0.758589 1
0.458504 0.785318 1
0.463144 0.837757 1
0.13871 0.766911 1
0.143906 0.839356 1
0.200399 0.755922 1
0.206207 0.857996 1
0.172839 0.858636 1
0.236026 0.760821 1
0.243675 0.860867 1
0.25631 0.729047 1
0.293838 0.733714 1
0.265114 0.830008 1
0.331456 0.737877 1
0.367855 0.742924 1
0.311043 0.768939 1
0.348564 0.774411 1
0.385458 0.77928 1
0.421377 0.781966 1
0.439687 0.81493 1
0.304461 0.833726 1
0.344149 0.838249 1
0.385831 0.845841 1
0.143423 0.87939 1
0.282201 0.864354 1
0.18061 0.894673 1
0.220481 0.892346 1
0.141747 0.915846 1
0.260026 0.895398 1
0.203475 0.926726 1
0.239543 0.926846 1
0.277811 0.930785 1
0.320543 0.867762 1
0.298525 0.899304 1
0.359873 0.870945 1
0.336791 0.901317 1
0.374773 0.902921 1
0.401429 0.880633 1
0.404243 0.923343 1
0.466406 0.87243 1
0.476461 0.907442 1
0.442756 0.929575 1
0.139992 0.959679 1
0.116935 0.999654 1
0.16986 0.93248 1
0.17849 0.966184 1
0.154446 0.999579 1
0.216065 0.962032 1
0.228479 0.999617 1
0.254793 0.963208 1
0.296382 0.964883 1
0.26388 0.999619 1
0.359127 0.933022 1
0.317875 0.93337 1
0.381502 0.961648 1
0.339814 0.965248 1
0.367514 0.999593 1
0.479259 0.942794 1
0.418078 0.961386 1
0.455508 0.967412 1
0.403747 0.999603 1
0.478391 0.999606 1
0.122212 1 0.510542
0.110449 1 0.542518
0.19235 1 0.508964
0.156458 1 0.510793
0.229161 1 0.507669
0.211846 1 0.539193
0.265439 1 0.50496
0.298749 1 0.509595
0.282205 1 0.54068
0.334414 1 0.510655
0.366601 1 0.510721
0.400662 1 0.515659
0.474445 1 0.504572
0.438252 1 0.512444
0.317365 1 0.543595
0.35171 1 0.546502
0.384512 1 0.547436
0.42106 1 0.545365
0.458213 1 0.540837
0.126977 1 0.576789
0.194364 1 0.572514
0.229492 1 0.570243
0.264852 1 0.571771
0.299907 1 0.575476
0.14032 1 0.610382
0.175224 1 0.60676
0.209962 1 0.602755
0.245885 1 0.602166
0.280538 1 0.6068
0.335106 1 0.57919
0.369955 1 0.584067
0.315798 1 0.610792
0.351996 1 0.61545
0.389694 1 0.620445
0.440491 1 0.574803
0.475573 1 0.572649
0.402884 1 0.578583
0.42119 1 0.605853
0.456157 1 0.608753
0.143269 1 0.543352
0.160236 1 0.575445
0.120641 1 0.642997
0.159448 1 0.640462
0.177163 1 0.541619
0.228331 1 0.632075
0.18631 1 0.669508
0.195822 1 0.637648
0.228062 1 0.665359
0.247661 1 0.538114
0.260285 1 0.6379
0.294864 1 0.642698
0.478697 1 0.633937
0.429266 1 0.638372
0.268332 1 0.671447
0.329817 1 0.646053
0.366166 1 0.650519
0.401338 1 0.659841
0.458183 1 0.657623
0.120674 1 0.681242
0.149901 1 0.672811
0.208209 1 0.695227
0.306115 1 0.678617
0.245256 1 0.698893
0.133891 1 0.716861
0.166826 1 0.702162
0.190704 1 0.724492
0.223518 1 0.729201
0.282767 1 0.705994
0.340929 1 0.68048
0.319678 1 0.717269
0.377547 1 0.686932
0.352924 1 0.712877
0.385227 1 0.726487
0.433124 1 0.679138
0.409928 1 0.702776
0.469235 1 0.693815
0.44381 1 0.717903
0.48009 1 0.729805
0.161862 1 0.741869
0.167683 1 0.780736
0.137721 1 0.831487
0.230175 1 0.862245
0.134298 1 0.759268
0.195652 1 0.75817
0.17421 1 0.820727
0.201919 1 0.793704
0.21301 1 0.827703
0.138406 1 0.797109
0.162682 1 0.85843
0.229473 1 0.764171
0.194804 1 0.858724
0.238721 1 0.798329
0.257366 1 0.733785
0.251013 1 0.831318
0.263593 1 0.768606
0.276334 1 0.802807
0.289396 1 0.832347
0.292332 1 0.741247
0.297069 1 0.776306
0.325299 1 0.758447
0.320238 1 0.800825
0.323769 1 0.834053
0.355124 1 0.74698
0.354213 1 0.785281
0.3875 1 0.764099
0.357505 1 0.823353
0.373856 1 0.860717
0.390293 1 0.799071
0.417624 1 0.742916
0.42284 1 0.781464
0.452129 1 0.755458
0.458554 1 0.792145
0.393991 1 0.831366
0.410862 1 0.860758
0.428925 1 0.82014
0.444306 1 0.857346
0.467354 1 0.827523
0.131013 1 0.866518
0.137526 1 0.899508
0.151963 1 0.931397
0.172402 1 0.894113
0.188636 1 0.928546
0.115785 1 0.941383
0.135243 1 0.967945
0.172083 1 0.964478
0.192608 1 0.999644
0.208134 1 0.963513
0.208596 1 0.894332
0.225319 1 0.928897
0.245458 1 0.896142
0.244115 1 0.964076
0.262072 1 0.92978
0.266671 1 0.863798
0.280241 1 0.963663
0.282199 1 0.896967
0.299051 1 0.929134
0.2978 1 0.999614
0.303076 1 0.865595
0.316161 1 0.963085
0.355615 1 0.895813
0.335921 1 0.929831
0.352114 1 0.964462
0.391092 1 0.894535
0.407529 1 0.928693
0.443248 1 0.929121
0.460118 1 0.96495
0.439962 1 0.999648
0.371815 1 0.92943
0.426942 1 0.894061
0.331435 1 0.999638
0.38804 1 0.964121
0.42394 1 0.963791
0.340097 1 0.863065
0.479501 1 0.862903
0.319622 1 0.896885
0.461632 1 0.894642
0.478775 1 0.929993
0.49586 0 0.000392365
0.524945 0 0.000408364
0.497766 0 0.0380186
0.517946 0 0.071667
0.55669 0 0.000400171
0.573882 0 0.0370541
0.536436 0 0.0372487
0.538629 0 0.103804
0.55587 0 0.0714206
0.589428 0 0.00038088
0.575855 0 0.104944
0.611074 0 0.036444
0.592804 0 0.0712574
0.609261 0 0.107001
0.628765 0 0.0711209
0.645747 0 0.103297
0.682329 0 0.000386682
0.648746 0 0.037067
0.666615 0 0.0714453
0.686445 0 0.0373584
0.685072 0 0.103965
0.714388 0 0.000397236
0.704318 0 0.071895
0.723273 0 0.10497
0.723537 0 0.0373922
0.741351 0 0.0722537
0.747317 0 0.000386086
0.75996 0 0.0373167
0.759262 0 0.107466
0.780965 0 0.000383602
0.795825 0 0.0375799
0.815125 0 0.000397176
0.850788 0 0.000393913
0.831622 0 0.0372533
0.777271 0 0.0730772
0.794868 0 0.108163
0.812988 0 0.073257
0.82991 0 0.108026
0.848631 0 0.0723919
0.49033 0 0.14696
0.504673 0 0.108451
0.557942 0 0.133371
0.626678 0 0.138199
0.50213 0 0.218264
0.51319 0 0.178592
0.58012 0 0.185618
0.614545 0 0.174917
0.642985 0 0.201817
0.523823 0 0.141083
0.535702 0 0.231101
0.551496 0 0.16586
0.54195 0 0.199124
0.571853 0 0.222626
0.590122 0 0.145568
0.607297 0 0.212556
0.664136 0 0.132991
0.649759 0 0.166989
0.635164 0 0.237308
0.680114 0 0.191644
0.672489 0 0.225277
0.705078 0 0.135302
0.685048 0 0.160499
0.703978 0 0.246618
0.71918 0 0.173348
0.709615 0 0.21095
0.740443 0 0.140593
0.744321 0 0.202048
0.740766 0 0.235661
0.777408 0 0.142156
0.812219 0 0.143764
0.758937 0 0.173279
0.777668 0 0.216762
0.793578 0 0.179979
0.83066 0 0.176555
0.848357 0 0.141167
0.815167 0 0.21203
0.840028 0 0.242853
0.852729 0 0.207561
0.500011 0 0.291783
0.485385 0 0.328068
0.52072 0 0.325216
0.506487 0 0.360583
0.559046 0 0.258369
0.54276 0 0.357445
0.597488 0 0.249981
0.570413 0 0.290296
0.617402 0 0.3458
0.633239 0 0.27167
0.667807 0 0.25961
0.769836 0 0.25678
0.804382 0 0.248292
0.795884 0 0.286125
0.653061 0 0.334107
0.687955 0 0.319302
0.723992 0 0.306627
0.760664 0 0.294577
0.778539 0 0.356776
0.491424 0 0.395183
0.553913 0 0.422083
0.589949 0 0.413634
0.632013 0 0.407353
0.613313 0 0.437774
0.487095 0 0.493597
0.498113 0 0.459101
0.537505 0 0.452635
0.560946 0 0.47894
0.580447 0 0.452081
0.642633 0 0.370853
0.670526 0 0.390932
0.644834 0 0.450185
0.663984 0 0.424026
0.688146 0 0.489287
0.70654 0 0.379582
0.741887 0 0.366058
0.719152 0 0.472024
0.791176 0 0.438409
0.814799 0 0.462831
0.517777 0 0.258599
0.535742 0 0.290502
0.556359 0 0.32372
0.580298 0 0.353529
0.6019 0 0.284136
0.661193 0 0.296012
0.592616 0 0.31974
0.627637 0 0.309451
0.67988 0 0.356008
0.696624 0 0.282722
0.73302 0 0.270774
0.821061 0 0.31906
0.83023 0 0.280592
0.856275 0 0.310479
0.715052 0 0.342759
0.751193 0 0.330671
0.787339 0 0.322798
0.812254 0 0.359127
0.846895 0 0.34708
0.529307 0 0.392158
0.566323 0 0.386594
0.605609 0 0.38108
0.734094 0 0.401839
0.698813 0 0.415839
0.513783 0 0.42517
0.524291 0 0.486077
0.590181 0 0.497792
0.656911 0 0.480978
0.725724 0 0.437803
0.756166 0 0.458065
0.746286 0 0.493976
0.769555 0 0.388868
0.762388 0 0.42243
0.783558 0 0.479992
0.801065 0 0.398638
0.826671 0 0.424846
0.837403 0 0.387705
0.850698 0 0.451883
0.837743 0 0.4863
0.500586 0.0370671 0
0.50907 0.0697585 0
0.486052 0.0979759 0
0.501167 0.131191 0
0.533549 0.0361771 0
0.523312 0.101862 0
0.558579 0.104052 0
0.593092 0.108505 0
0.535663 0.136112 0
0.651736 0.000379791 0
0.621883 0.000431297 0
0.697368 0.0350176 0
0.66169 0.0362023 0
0.731686 0.0366192 0
0.75054 0.072535 0
0.733605 0.103349 0
0.765297 0.0372258 0
0.783112 0.0742196 0
0.768376 0.11162 0
0.512011 0.167534 0
0.486946 0.228944 0
0.545703 0.170856 0
0.562695 0.19862 0
0.516063 0.201737 0
0.570359 0.13859 0
0.583591 0.170589 0
0.607653 0.142389 0
0.619478 0.175713 0
0.59918 0.204569 0
0.645801 0.14756 0
0.681903 0.174838 0
0.652241 0.183363 0
0.740124 0.18401 0
0.7077 0.199728 0
0.634731 0.211987 0
0.769778 0.205414 0
0.673453 0.214447 0
0.707671 0.235428 0
0.738866 0.222352 0
0.519017 0.242273 0
0.555287 0.257529 0
0.494346 0.265712 0
0.59033 0.26838 0
0.523219 0.354376 0
0.529643 0.277945 0
0.488367 0.367482 0
0.553693 0.410914 0
0.555137 0.37461 0
0.605292 0.299148 0
0.620768 0.408153 0
0.629166 0.273823 0
0.63973 0.310172 0
0.62591 0.480888 0
0.678646 0.251534 0
0.692905 0.474501 0
0.767403 0.24472 0
0.736427 0.262223 0
0.768609 0.363512 0
0.496731 0.404087 0
0.495708 0.462578 0
0.532818 0.31562 0
0.497227 0.331904 0
0.524205 0.390034 0
0.55466 0.338956 0
0.565485 0.478468 0
0.665081 0.284155 0
0.671271 0.324929 0
0.586667 0.393235 0
0.696294 0.303353 0
0.706812 0.336299 0
0.711526 0.374769 0
0.689206 0.437848 0
0.727667 0.490588 0
0.764463 0.284581 0
0.737947 0.347145 0
0.742454 0.388526 0
0.7728 0.403817 0
0.857993 0.451177 0
0.581455 0.0720102 0
0.628356 0.112883 0
0.631102 0.0426452 0
0.649895 0.0778589 0
0.567079 0.0365099 0
0.60021 0.03753 0
0.680763 0.0674666 0
0.693711 0.100247 0
0.713387 0.128841 0
0.545823 0.0703128 0
0.615242 0.0776378 0
0.615198 0 0.474036
0.686457 0 0.452519
0.661529 0.111269 0
0.681089 0.13995 0
0.714336 0.162051 0
0.543813 0.222965 0
0.578462 0.232648 0
0.612556 0.240242 0
0.647969 0.24481 0
0.705217 0.273054 0
0.504279 0.299062 0
0.563132 0.293832 0
0.5816 0.321485 0
0.614081 0.335356 0
0.645769 0.349079 0
0.585698 0.357154 0
0.617532 0.372326 0
0.679168 0.361755 0
0.58955 0.428194 0
0.520679 0.431476 0
0.557712 0.444723 0
0.530529 0.468076 0
0.59473 0.463328 0
0.651008 0.385902 0
0.684513 0.399983 0
0.655209 0.42249 0
0.624839 0.443812 0
0.658197 0.459152 0
0.798503 0.0369693 0
0.715591 0.0703621 0
0.802402 0.105998 0
0.747803 0.141685 0
0.833119 0.0335778 0
0.852162 0.063922 0
0.817247 0.0697932 0
0.837713 0.0999138 0
0.825638 0.133588 0
0.792769 0.144055 0
0.854792 0.14758 0
0.769748 0.167894 0
0.830261 0.171141 0
0.799939 0.185282 0
0.79834 0.226199 0
0.829017 0.209475 0
0.796451 0.265681 0
0.828378 0.247645 0
0.860702 0.268385 0
0.796055 0.303889 0
0.827913 0.28505 0
0.732177 0.304255 0
0.860547 0.304204 0
0.828787 0.3221 0
0.764392 0.323188 0
0.797182 0.34136 0
0.750242 0.430617 0
0.800293 0.379392 0
0.830561 0.35857 0
0.803424 0.41731 0
0.723606 0.4536 0
0.833357 0.394174 0
0.814917 0.456153 0
0.838418 0.480607 0
0.717678 0.414633 0
0.758626 0.471058 0
0.834827 0.428497 0
0.782142 0.44624 0
0.795644 0.487478 0
0.886473 0 0.00039705
0.906054 0 0.0351467
0.94935 0 0.0358888
0.961929 0 0.00047082
0.867929 0 0.0364575
0.884827 0 0.0703171
0.900814 0 0.103054
0.935371 0 0.0984613
0.963533 0 0.0698767
0.865339 0 0.105913
0.965616 0 0.110122
0.885513 0 0.137527
0.924933 0 0.132858
0.964285 0 0.145025
0.903718 0 0.1682
0.937481 0 0.165618
0.867613 0 0.172851
0.891074 0 0.202811
0.929652 0 0.198948
0.870182 0.0345577 0
0.904586 0.0322726 0
0.871034 0.0897972 0
0.893895 0.0674734 0
0.901255 0.106675 0
0.867826 0.121336 0
0.931937 0.127308 0
0.872677 0.170088 0
0.897832 0.143998 0
0.902258 0.181974 0
0.923494 0 0.000439519
0.922448 0 0.0671349
0.927512 0.0607468 0
0.931545 0.0918691 0
0.932363 0.162675 0
0.940353 0.0311311 0
0.963795 0.068698 0
0.965108 0.105856 0
0.965364 0.143124 0
0.965217 0.181206 0
0.999372 0.000897361 0
0.999077 0 0.0331427
0.972754 0.0329848 0
1 0.0464644 0.000426794
1 0.030041 0.0352742
1 0.000403192 0.0628431
1 0.0642026 0.0381953
1 0.0411372 0.0729094
1 0.0796058 0.0736367
0.999611 0 0.0932062
1 0.000374805 0.127939
0.967066 0 0.185002
1 0.000497459 0.159546
1 0.000589013 0.189087
1 0.0312615 0.107957
1 0.0647237 0.109321
1 0.040279 0.142871
1 0.0460936 0.176375
1 0.0763298 0.208065
1 0.0821861 0.000394989
1 0.116545 0.000411698
1 0.099658 0.0375496
1 0.116567 0.0727534
1 0.135655 0.0380914
1 0.149204 0.00042839
1 0.179573 0.000434337
1 0.172021 0.0381908
1 0.153272 0.0742623
1 0.13577 0.106703
1 0.0992672 0.107012
1 0.1687 0.113617
1 0.0805873 0.143862
1 0.118501 0.137336
1 0.1548 0.148
1 0.121944 0.170545
1 0.180322 0.173127
1 0.0876105 0.177378
1 0.118372 0.208311
1 0.151105 0.191193
0.877485 0 0.236281
0.864761 0 0.271331
0.888958 0 0.297304
0.885579 0 0.338251
0.902677 0 0.262769
0.915297 0 0.316395
0.917372 0 0.230906
0.929219 0 0.28437
0.931104 0 0.343328
0.947342 0 0.252205
0.961723 0 0.222097
0.999219 0 0.249063
0.999612 0 0.219005
1 0.000625652 0.278547
0.955154 0 0.31225
0.967992 0 0.279068
0.968797 0 0.344192
0.999434 0 0.309677
1 0.000658786 0.339772
0.864106 0 0.416627
0.870534 0 0.373607
0.893978 0 0.397347
0.910224 0 0.369129
0.931543 0 0.406182
0.870875 0 0.485416
0.885872 0 0.453412
0.90339 0 0.427278
0.905394 0 0.485319
0.92698 0 0.451966
0.950256 0 0.373686
0.969336 0 0.400441
0.937506 0 0.486608
0.959013 0 0.434059
0.966181 0 0.468384
0.999471 0 0.371204
1 0.000797265 0.4005
0.999592 0 0.429075
1 0.00041469 0.458955
1 0.000390341 0.491893
1 0.0384199 0.21118
1 0.0659057 0.243389
1 0.030483 0.247882
1 0.0932222 0.27338
1 0.18594 0.209675
1 0.153957 0.229133
1 0.10019 0.236748
1 0.128608 0.254283
1 0.164366 0.267303
1 0.0501089 0.276546
1 0.135191 0.289966
1 0.0713765 0.306111
1 0.168537 0.30644
1 0.107602 0.307352
1 0.0324241 0.30778
1 0.136457 0.331403
1 0.05034 0.338206
1 0.0922227 0.337849
1 0.176634 0.342176
1 0.11387 0.365492
1 0.149752 0.36716
1 0.0332912 0.36856
1 0.0731011 0.369359
1 0.0935484 0.398202
1 0.152409 0.433343
1 0.162873 0.401052
1 0.0379229 0.471637
1 0.136721 0.503177
1 0.172621 0.494295
1 0.0479916 0.40029
1 0.0756424 0.425462
1 0.113033 0.437224
1 0.181698 0.457487
1 0.143719 0.467034
1 0.0371823 0.434607
1 0.0713472 0.491928
1 0.12823 0.401807
1 0.0748018 0.457289
1 0.107936 0.474847
0.861526 0.198326 0
0.861125 0.232762 0
0.894018 0.286471 0
0.892974 0.321867 0
0.8952 0.215616 0
0.894225 0.251079 0
0.928214 0.269613 0
0.928208 0.303718 0
0.925925 0.335274 0
0.932359 0.199985 0
0.928485 0.234673 0
0.962872 0.255112 0
0.962519 0.292195 0
0.962322 0.330845 0
0.964286 0.219131 0
0.999536 0.269262 0
1 0.2088 0.000394536
0.999622 0.300134 0
1 0.329759 0.000418967
1 0.238812 0.000536193
1 0.270896 0.0318635
1 0.209905 0.0384114
1 0.306472 0.0386431
1 0.243839 0.0498109
1 0.187653 0.0736414
1 0.281252 0.0679446
1 0.223339 0.0792289
1 0.256913 0.092973
1 0.318894 0.0759992
1 0.200681 0.107235
1 0.231786 0.120394
1 0.267175 0.130886
1 0.198366 0.143517
1 0.236926 0.156492
1 0.294574 0.104516
1 0.333125 0.113239
1 0.303939 0.140659
1 0.335817 0.158328
1 0.273371 0.167703
0.861839 0.340883 0
0.894901 0.358983 0
0.864862 0.37748 0
0.899757 0.396681 0
0.866839 0.41332 0
0.928064 0.426656 0
0.884078 0.471462 0
0.893844 0.436146 0
0.922992 0.461743 0
0.929501 0.365183 0
0.93442 0.493222 0
0.935592 0.395047 0
0.961108 0.442724 0
0.964207 0.475739 0
0.965296 0.36896 0
0.966637 0.407878 0
1 0.392883 0.000420033
1 0.427362 0.000396526
1 0.460433 0.000391116
1 0.360085 0.000429473
1 0.411457 0.0375204
1 0.375406 0.0385533
1 0.447938 0.0375602
1 0.484465 0.0375852
1 0.340561 0.039408
1 0.430024 0.0723177
1 0.372802 0.105483
1 0.392546 0.0728637
1 0.46714 0.0731589
1 0.354446 0.075304
1 0.360676 0.138701
1 0.467246 0.139766
1 0.432126 0.140039
1 0.409808 0.16789
1 0.411652 0.105779
1 0.394316 0.137442
1 0.448688 0.106223
1 0.486016 0.108206
1 0.479643 0.170217
1 0.213687 0.183503
1 0.248292 0.195505
1 0.259931 0.235761
1 0.23019 0.259243
1 0.307082 0.179324
1 0.281461 0.207958
1 0.31378 0.215308
1 0.299141 0.248789
1 0.335138 0.27058
1 0.343356 0.195223
1 0.340307 0.235662
1 0.374212 0.175235
1 0.373475 0.216327
1 0.371486 0.255692
1 0.40697 0.20126
1 0.405123 0.238785
1 0.443759 0.178953
1 0.473126 0.204718
1 0.438879 0.219249
1 0.193058 0.245244
1 0.199525 0.282554
1 0.222879 0.221883
1 0.236694 0.296174
1 0.206598 0.318924
1 0.267681 0.272681
1 0.24425 0.334075
1 0.302659 0.288066
1 0.272385 0.311196
1 0.306435 0.326943
1 0.436656 0.258959
1 0.470051 0.241827
1 0.369893 0.293175
1 0.403589 0.277302
1 0.467739 0.280416
1 0.337309 0.307528
1 0.434938 0.298526
1 0.370214 0.332453
1 0.40188 0.3161
1 0.466003 0.319672
1 0.214995 0.354955
1 0.280412 0.35117
1 0.187629 0.3787
1 0.317053 0.366704
1 0.221226 0.391661
1 0.193147 0.420898
1 0.262019 0.407586
1 0.219082 0.453543
1 0.230742 0.423362
1 0.26107 0.443829
1 0.329316 0.401597
1 0.338248 0.438249
1 0.339836 0.344129
1 0.431274 0.375745
1 0.37255 0.45512
1 0.432092 0.337918
1 0.444039 0.492261
1 0.46554 0.357632
1 0.467757 0.433789
1 0.472577 0.473087
1 0.247258 0.47829
1 0.208387 0.48707
1 0.25186 0.372116
1 0.284869 0.470072
1 0.276138 0.504214
1 0.290925 0.389683
1 0.298219 0.428828
1 0.31609 0.464551
1 0.346442 0.481113
1 0.314897 0.504323
1 0.397191 0.356717
1 0.360823 0.3754
1 0.397584 0.394303
1 0.366771 0.414663
1 0.380204 0.495327
1 0.465394 0.395086
1 0.432972 0.413899
1 0.40197 0.433385
1 0.437396 0.452929
1 0.407981 0.472496
0.516216 0 0.520322
0.54449 0 0.547365
0.552814 0 0.512202
0.573694 0 0.573318
0.503244 0 0.589207
0.527425 0 0.648849
0.534417 0 0.616275
0.538904 0 0.582265
0.593864 0 0.67129
0.49141 0 0.690187
0.528018 0 0.681896
0.519322 0 0.714631
0.552669 0 0.721922
0.589415 0 0.708581
0.515617 0 0.748397
0.583388 0 0.743825
0.51985 0 0.784269
0.549262 0 0.758835
0.579776 0 0.779894
0.610775 0 0.526197
0.635666 0 0.505714
0.509334 0 0.555461
0.578781 0 0.536551
0.608139 0 0.561422
0.602782 0 0.597604
0.637509 0 0.581917
0.49929 0 0.622554
0.568268 0 0.610232
0.631759 0 0.619453
0.494435 0 0.657569
0.485564 0 0.783303
0.596555 0 0.634369
0.561032 0 0.685811
0.56191 0 0.648451
0.619186 0 0.731446
0.611349 0 0.768228
0.626599 0 0.656574
0.623994 0 0.695212
0.634015 0 0.794794
0.642137 0 0.543898
0.666042 0 0.603077
0.671715 0 0.521906
0.671114 0 0.564303
0.699888 0 0.587296
0.692991 0 0.626361
0.701007 0 0.545303
0.728187 0 0.566637
0.724564 0 0.613958
0.660386 0 0.641667
0.723259 0 0.65017
0.65524 0 0.678902
0.690348 0 0.66324
0.719157 0 0.689328
0.655361 0 0.719535
0.702015 0 0.723894
0.644956 0 0.756985
0.666524 0 0.786461
0.697653 0 0.780642
0.712544 0 0.511288
0.77224 0 0.515994
0.740086 0 0.532675
0.765664 0 0.559117
0.79477 0 0.538385
0.748355 0 0.592613
0.779857 0 0.597173
0.757646 0 0.630984
0.78735 0 0.659543
0.793487 0 0.628911
0.683366 0 0.697709
0.736527 0 0.730206
0.751069 0 0.703467
0.752419 0 0.668005
0.780397 0 0.693157
0.678993 0 0.749129
0.71784 0 0.757371
0.752684 0 0.764662
0.774039 0 0.735006
0.789219 0 0.769813
0.802109 0 0.571084
0.810526 0 0.506114
0.816148 0 0.605693
0.825476 0 0.647158
0.828514 0 0.541931
0.851524 0 0.517534
0.836764 0 0.576749
0.847368 0 0.616212
0.865602 0 0.551152
0.868266 0 0.586131
0.883456 0 0.617431
0.888167 0 0.517486
0.899977 0 0.548986
0.901175 0 0.583255
0.92709 0 0.520746
0.919065 0 0.617681
0.933024 0 0.556567
0.935015 0 0.58975
0.937165 0 0.646219
0.964453 0 0.541069
0.961401 0 0.613401
0.965422 0 0.506944
0.967194 0 0.57707
0.969936 0 0.64611
1 0.000376582 0.526793
1 0.000381361 0.561891
1 0.0354137 0.546711
1 0.000390505 0.597204
1 0.000455708 0.628926
1 0.0355085 0.508592
1 0.102244 0.511472
1 0.0672437 0.528126
1 0.0965692 0.546651
1 0.0694477 0.567049
1 0.0359129 0.584055
1 0.0727393 0.601662
1 0.0399247 0.620456
1 0.0771977 0.641277
1 0.104234 0.61406
0.814835 0 0.68296
0.835422 0 0.716618
0.847966 0 0.68108
0.862715 0 0.648545
0.802254 0 0.71677
0.815198 0 0.747365
0.823869 0 0.781102
0.852053 0 0.751291
0.853704 0 0.78884
0.883039 0 0.679264
0.867698 0 0.713821
0.899857 0 0.648518
0.883965 0 0.77598
0.887761 0 0.742772
0.901884 0 0.707773
0.920595 0 0.76636
0.921346 0 0.677106
0.921593 0 0.735028
0.938149 0 0.792689
0.938539 0 0.706885
0.955668 0 0.743566
0.96116 0 0.678908
0.965786 0 0.772404
0.970919 0 0.714398
1 0.000389919 0.6914
0.999606 0 0.751793
1 0.00042489 0.66214
1 0.000603939 0.722608
1 0.000419944 0.785469
1 0.0376692 0.65597
1 0.0376219 0.695252
1 0.0425315 0.729667
1 0.035986 0.766201
1 0.0669308 0.785567
1 0.10335 0.676336
1 0.0686803 0.677204
1 0.081944 0.711543
1 0.0748097 0.748757
1 0.103548 0.772926
0.495625 0 0.815015
0.505943 0 0.848555
0.493166 0 0.909343
0.516626 0 0.882152
0.530201 0 0.821373
0.552978 0 0.796311
0.526267 0 0.919283
0.542063 0 0.855006
0.549131 0 0.892463
0.568174 0 0.827779
0.556688 0 0.931692
0.574559 0 0.866956
0.580688 0 0.904056
0.591128 0 0.935949
0.5996 0 0.807708
0.599703 0 0.844683
0.629012 0 0.863901
0.606934 0 0.884814
0.618861 0 0.918498
0.631195 0 0.829393
0.646754 0 0.938074
0.66427 0 0.822028
0.646814 0 0.895872
0.659497 0 0.858356
0.691523 0 0.849159
0.683829 0 0.88448
0.723094 0 0.836974
0.751241 0 0.896892
0.713893 0 0.904487
0.697802 0 0.813503
0.730488 0 0.79497
0.75009 0 0.824041
0.768994 0 0.79719
0.754651 0 0.86113
0.675166 0 0.918746
0.703225 0 0.935791
0.720645 0 0.872122
0.737969 0 0.932577
0.771362 0 0.932847
0.506783 0 0.945822
0.539171 0 0.963068
0.575513 0 0.965825
0.614118 0 0.961328
0.507001 0 0.980781
0.505747 0.0165805 1
0.595098 0.000378083 1
0.563899 0.000397691 1
0.53179 0.000428586 1
0.556592 0.0373233 1
0.5219 0.0426709 1
0.503842 0.0736657 1
0.537561 0.0737306 1
0.540747 0.106422 1
0.59223 0.0378813 1
0.625535 0.0443346 1
0.570529 0.0734717 1
0.604384 0.0768156 1
0.58013 0.108354 1
0.647232 0 0.972862
0.669356 0 0.9996
0.680153 0 0.961353
0.626675 0.000416904 1
0.651615 0.0240763 1
0.718559 0 0.965991
0.702682 0 0.9996
0.75595 0 0.966423
0.732999 0.000356703 1
0.758878 0.000702897 1
0.689588 0.0326848 1
0.728026 0.0361036 1
0.662885 0.0565975 1
0.762777 0.0466003 1
0.702446 0.0653802 1
0.638465 0.0823475 1
0.739016 0.0743612 1
0.676447 0.0902336 1
0.714349 0.10027 1
0.775152 0.0856122 1
0.780211 0 0.834714
0.789858 0 0.870666
0.803783 0 0.807894
0.811662 0 0.844149
0.83618 0 0.863817
0.821299 0 0.89371
0.838692 0 0.822519
0.866515 0 0.851558
0.860705 0 0.891654
0.873806 0 0.815962
0.900752 0 0.838585
0.905494 0 0.802198
0.968096 0 0.807642
0.93319 0 0.826183
0.895602 0 0.872657
0.930016 0 0.861802
0.9638 0 0.874191
0.964157 0 0.841331
1 0.000356689 0.848465
0.78562 0 0.902208
0.808522 0 0.928731
0.827363 0 0.962152
0.842856 0 0.925387
0.876284 0 0.930511
0.78427 0 0.999535
0.792733 0 0.963236
0.815134 0 0.999587
0.860268 0 0.963315
0.846532 0.0003749 1
0.895261 0 0.903524
0.931176 0 0.897628
0.894567 0 0.963959
0.914342 0 0.931955
0.929687 0 0.964697
0.951042 0 0.933225
0.967972 0 0.907222
0.939582 0 0.999628
0.966503 0 0.963448
0.999476 0 0.934536
1 0.0354328 0.807152
1 0.000425297 0.819082
1 0.0365088 0.849642
1 0.000530245 0.876708
1 0.0961667 0.805324
1 0.0672027 0.826122
1 0.10508 0.837346
1 0.074718 0.862213
1 0.044166 0.888913
1 0.000529869 0.904423
1 0.0884729 0.894843
1 0.0329927 0.926003
1 0.0676819 0.924972
1 0.105129 0.928729
1 0.0440239 0.962143
1 0.0822355 0.961648
1 0.000548366 0.964475
1 0.000771648 0.999354
1 0.0697308 0.999515
0.791836 0.0307085 1
0.801691 0.0633248 1
0.827974 0.0353349 1
0.839458 0.0697076 1
0.813566 0.0966828 1
0.863312 0.0377454 1
0.85035 0.104971 1
0.877817 0.000442769 1
0.896586 0.0450632 1
0.875145 0.0763579 1
0.907413 0.00040124 1
0.926326 0.0316943 1
0.933542 0.0653417 1
0.909463 0.0871063 1
0.950784 0.0999566 1
1 0.0357587 0.999605
0.969393 0.000381179 1
0.96216 0.0373036 1
0.969386 0.0732068 1
0.999513 0.103012 1
1 0.200103 0.523826
1 0.163194 0.530744
1 0.235254 0.512391
1 0.259682 0.535728
1 0.129055 0.540712
1 0.149574 0.569512
1 0.227592 0.551934
1 0.270797 0.566866
1 0.208629 0.582594
1 0.138642 0.605196
1 0.175188 0.597559
1 0.186405 0.631148
1 0.216567 0.614562
1 0.250996 0.625713
1 0.118162 0.644254
1 0.15383 0.637443
1 0.143045 0.673025
1 0.181882 0.667966
1 0.254174 0.660323
1 0.224293 0.683012
1 0.25704 0.698459
1 0.151053 0.736235
1 0.196597 0.701757
1 0.163267 0.703996
0.570905 0.204273 1
0.657729 0.211573 1
0.905545 0.187137 1
0.719539 0.199095 1
0.965885 0.21009 1
1 0.124256 0.705997
1 0.171143 0.767894
1 0.13821 0.771095
1 0.131371 0.805501
1 0.168603 0.805987
1 0.227036 0.721444
1 0.259757 0.738171
1 0.237038 0.795675
1 0.274401 0.814574
1 0.205996 0.817981
1 0.29632 0.537565
1 0.330076 0.547475
1 0.306526 0.57659
1 0.316888 0.615302
1 0.41545 0.510848
1 0.351398 0.519669
1 0.387477 0.533578
1 0.457536 0.615892
1 0.393154 0.632271
1 0.288405 0.639179
1 0.43023 0.642357
1 0.325733 0.653958
1 0.466626 0.655275
1 0.366267 0.660165
1 0.403452 0.669704
1 0.439482 0.68082
1 0.31463 0.689302
1 0.346728 0.690471
1 0.475124 0.694168
1 0.38032 0.698967
1 0.414247 0.708696
1 0.28791 0.71425
1 0.448899 0.719353
1 0.322449 0.723839
1 0.390108 0.73835
1 0.483485 0.734311
1 0.29463 0.751104
1 0.373444 0.801467
1 0.402631 0.776845
1 0.329951 0.759401
1 0.365253 0.766305
1 0.42351 0.747625
1 0.454927 0.757444
1 0.483692 0.773995
1 0.301777 0.787853
1 0.309587 0.825273
1 0.439588 0.789702
1 0.337336 0.79554
1 0.408909 0.814452
1 0.185971 0.558256
1 0.110067 0.578561
1 0.244162 0.588298
1 0.217444 0.650121
1 0.34188 0.587443
1 0.28035 0.603129
1 0.353143 0.625557
1 0.286771 0.674068
1 0.356441 0.728635
1 0.36538 0.560224
1 0.378895 0.598203
1 0.423352 0.547251
1 0.402801 0.572224
1 0.420618 0.604219
1 0.452004 0.531257
1 0.448397 0.575798
1 0.480714 0.510919
1 0.481373 0.553666
1 0.486021 0.592661
1 0.112385 0.738681
1 0.143213 0.839261
1 0.192027 0.738493
1 0.201631 0.781216
1 0.17923 0.84467
1 0.228412 0.758121
1 0.215146 0.854771
1 0.265899 0.775585
1 0.244001 0.830913
1 0.25091 0.864133
1 0.438454 0.829724
1 0.472654 0.80901
1 0.345567 0.831047
1 0.381068 0.835923
1 0.470741 0.845773
1 0.284863 0.854881
1 0.406717 0.858967
1 0.323412 0.861618
1 0.363185 0.865158
1 0.442347 0.866288
1 0.11635 0.869023
1 0.155341 0.87503
1 0.19183 0.883053
1 0.228386 0.892167
1 0.129887 0.901467
1 0.268318 0.894591
1 0.153199 0.967742
1 0.169566 0.999559
1 0.249709 0.961756
1 0.304258 0.892873
1 0.285415 0.928956
1 0.385958 0.893471
1 0.344316 0.89512
1 0.330861 0.999572
1 0.405222 0.928547
1 0.38789 0.962921
1 0.466515 0.893016
1 0.423934 0.896041
1 0.484462 0.927173
1 0.142724 0.934949
1 0.117749 0.964808
1 0.169483 0.912605
1 0.182375 0.953399
1 0.199166 0.999488
1 0.205991 0.921747
1 0.215945 0.960143
1 0.245229 0.926079
1 0.281659 0.965496
1 0.231618 0.999585
1 0.325555 0.926177
1 0.366454 0.926796
1 0.314551 0.960785
1 0.350156 0.96081
1 0.360701 0.999565
1 0.445474 0.926835
1 0.465081 0.961929
1 0.426879 0.962081
1 0.484059 0.99958
1 0.451229 0.999608
0.526877 0.141413 1
0.561255 0.136787 1
0.491088 0.14593 1
0.557035 0.171164 1
0.517873 0.175872 1
0.538171 0.206791 1
0.491324 0.247048 1
0.504117 0.211297 1
0.55004 0.274244 1
0.539607 0.309497 1
0.493329 0.395142 1
0.521767 0.419308 1
0.483555 0.431514 1
0.510268 0.490208 1
0.577179 0.301668 1
0.569854 0.336628 1
0.56492 0.372048 1
0.55214 0.443933 1
0.546801 0.478709 1
0.629867 0.182361 1
0.596883 0.185156 1
0.624351 0.217555 1
0.613757 0.292702 1
0.620913 0.255709 1
0.651153 0.115742 1
0.629889 0.148044 1
0.68886 0.198855 1
0.654924 0.245875 1
0.648973 0.282007 1
0.606401 0.328663 1
0.65559 0.415884 1
0.674464 0.308427 1
0.673592 0.346378 1
0.688264 0.421918 1
0.588341 0.435211 1
0.621004 0.461824 1
0.658379 0.452917 1
0.687091 0.487989 1
0.650023 0.489628 1
0.502801 0.109997 1
0.593866 0.148961 1
0.614551 0.114384 1
0.594338 0.229119 1
0.513898 0.279804 1
0.501672 0.315609 1
0.560306 0.239119 1
0.525919 0.243433 1
0.586302 0.266205 1
0.533809 0.344779 1
0.501366 0.35695 1
0.529403 0.382663 1
0.514931 0.454751 1
0.558697 0.408297 1
0.601437 0.363271 1
0.631825 0.389047 1
0.595039 0.398939 1
0.623373 0.426452 1
0.583795 0.47045 1
0.690548 0.124869 1
0.666125 0.146144 1
0.663141 0.176452 1
0.685106 0.269296 1
0.690885 0.234714 1
0.725677 0.137024 1
0.700724 0.163578 1
0.724662 0.233623 1
0.725637 0.26788 1
0.706351 0.296207 1
0.641476 0.319851 1
0.738159 0.307144 1
0.639159 0.355787 1
0.706568 0.330873 1
0.708109 0.366907 1
0.673544 0.383858 1
0.715501 0.40138 1
0.695218 0.456741 1
0.724568 0.43895 1
0.728355 0.479115 1
0.750549 0.111265 1
0.763186 0.146689 1
0.787936 0.121435 1
0.860266 0.141331 1
0.739192 0.171848 1
0.775117 0.183669 1
0.824628 0.131594 1
0.799293 0.15782 1
0.834495 0.167916 1
0.809946 0.19576 1
0.845201 0.204177 1
0.752634 0.209999 1
0.785866 0.222713 1
0.820349 0.234414 1
0.758475 0.247783 1
0.855017 0.238374 1
0.764006 0.283406 1
0.794353 0.260519 1
0.830696 0.273685 1
0.799845 0.297708 1
0.833505 0.313505 1
0.740718 0.344876 1
0.771302 0.322146 1
0.804878 0.337011 1
0.776407 0.360332 1
0.837828 0.352812 1
0.74626 0.3812 1
0.811767 0.376364 1
0.846959 0.393108 1
0.783226 0.398002 1
0.753149 0.417462 1
0.789753 0.435477 1
0.758777 0.454587 1
0.769676 0.487513 1
0.819358 0.414648 1
0.858817 0.427234 1
0.828644 0.450598 1
0.799497 0.471216 1
0.83323 0.490663 1
0.885529 0.114358 1
0.92211 0.122384 1
0.895966 0.150587 1
0.870205 0.177617 1
0.88328 0.21375 1
0.962935 0.131468 1
0.999603 0.136287 1
0.931937 0.156441 1
0.967215 0.169253 1
